# .PCD v0.7 - Point Cloud Data file format
VERSION 0.7
FIELDS x y z
SIZE 4 4 4
TYPE F F F
COUNT 1 1 1
WIDTH 1527
HEIGHT 1
VIEWPOINT 0 0 0 1 0 0 0
POINTS 1527
DATA ascii
-11.901651 8.7722187 -6.351717
9.3534632 8.9055109 -6.2909369
15.588158 8.8395214 -6.0827436
41.47353 8.6731348 -6.4901776
46.025356 8.8238039 -6.3244905
-11.844694 9.263031 -6.3845387
8.8557358 9.1763649 -6.1608143
15.577936 9.3455582 -6.1296768
35.775627 9.312192 -6.0263782
45.972015 9.1706066 -6.3428636
-11.795103 9.7629814 -6.4226112
8.8301182 9.6990099 -6.1492023
15.568199 9.7312536 -6.1674914
35.902824 9.613307 -6.0902066
36.035744 9.9226961 -6.1569476
44.539139 9.8622065 -6.0488873
-11.753159 10.273331 -6.466177
8.7670231 10.214733 -6.1299362
36.174671 10.240825 -6.2267456
44.740395 10.330814 -6.1505632
8.8281765 10.775537 -6.1436157
36.395813 10.736784 -6.3379259
44.953991 10.817763 -6.2585521
8.8013744 11.314938 -6.1370258
36.630577 11.253015 -6.456038
45.105137 11.155549 -6.3350167
8.7238865 11.841709 -6.1195474
45.346069 11.683811 -6.4569883
8.7032175 12.254308 -6.1169949
8.7073231 12.681893 -6.1218443
8.70397 13.25588 -6.1277089
8.6318779 13.807983 -6.1182504
120.71744 13.690369 -6.0474138
58.602417 14.282683 -6.0351815
41.461983 14.96254 -6.0142641
58.602657 14.732958 -6.0914955
41.46262 15.273544 -6.0535145
58.602913 15.192843 -6.1504426
41.463593 15.748516 -6.1146154
58.603283 15.81963 -6.2327089
41.464592 16.232286 -6.17802
58.60358 16.300455 -6.2972732
-21.839874 16.787966 -6.0229363
41.465622 16.727663 -6.2444286
58.601944 16.959885 -6.3884006
-21.839624 17.2344 -6.0829124
-11.732339 17.265068 -6.0453424
41.466686 17.232826 -6.3133445
58.602749 17.295755 -6.435401
-21.839365 17.762911 -6.1551232
-11.732845 17.802328 -6.1158214
41.473587 17.746407 -6.3838692
58.603569 17.636688 -6.4837136
-21.839109 18.228661 -6.2197981
-11.733198 18.168318 -6.1646657
29.95211 18.413321 -6.0099368
41.47366 18.276165 -6.459105
46.730072 18.249357 -6.0428176
93.896935 18.372578 -6.0875158
94.040764 18.198864 -6.072104
-21.826273 18.694315 -6.2834287
-11.733738 18.729622 -6.2408495
29.952312 18.776987 -6.0579581
44.64695 18.767385 -6.0369916
46.730431 18.788523 -6.1144247
93.459129 18.894964 -6.1366258
93.676849 18.630604 -6.1105866
-21.793365 19.23041 -6.354908
-11.734303 19.3039 -6.3200698
29.969345 19.132402 -6.1027875
44.909496 19.394165 -6.1695123
46.730793 19.339632 -6.1888623
92.282684 19.336922 -6.0684299
92.747726 19.432419 -6.1555381
93.273262 19.208216 -6.1799545
-11.734693 19.695807 -6.374999
29.968914 19.699989 -6.1800823
46.731033 19.715401 -6.2404571
91.298431 19.61883 -6.0042329
92.008186 19.931404 -6.1711888
29.968468 20.280973 -6.2604756
45.187565 20.053823 -6.3098989
46.728226 20.295055 -6.3218446
90.468269 20.362417 -6.0840254
90.719406 20.1381 -6.0585675
93.663689 20.346344 -6.4967585
45.482365 20.748978 -6.4587646
57.287289 20.595217 -6.3599224
57.841858 20.740652 -6.4725318
58.095886 20.583118 -6.4924798
90.288597 20.973745 -6.2152104
90.510963 20.916121 -6.225904
57.444614 21.162748 -6.4682689
86.499191 21.372784 -6.1065435
89.103874 21.065428 -6.1135883
89.501831 21.40424 -6.2397738
76.747513 21.90239 -6.1294203
89.917923 21.759098 -6.372478
27.826605 22.317238 -6.2061338
28.574259 22.367025 -6.1485295
30.529661 22.406704 -6.0034275
77.189751 22.084812 -6.2205844
27.966496 22.596781 -6.2588124
28.108755 22.881304 -6.3130865
29.958284 22.674898 -6.1099672
76.717819 22.774908 -6.3400698
28.398155 23.472702 -6.4284678
29.153584 23.191637 -6.2977886
29.555597 23.131014 -6.2514644
76.639099 23.235218 -6.4456024
30.737558 24.235689 -6.4417462
97.537674 24.983459 -6.4060316
97.692177 25.288746 -6.4588337
98.308563 25.107983 -6.3555927
98.847984 25.101503 -6.3018837
100.08743 25.347099 -6.2476873
98.861763 25.85214 -6.4728312
99.471413 25.638607 -6.3684306
15.784659 27.695801 -6.1246834
16.90583 27.990334 -6.1191454
15.968483 28.061895 -6.1858964
16.571262 28.093519 -6.1577663
17.077129 28.440578 -6.2003427
17.764111 28.13727 -6.1059527
61.57291 29.313433 -6.3686366
7.9957952 -23.356779 -5.7398334
49.874989 -20.758064 -5.9213443
98.899986 -20.527052 -5.8983998
47.530472 -20.499674 -5.6024203
98.182022 -20.334801 -5.7777901
98.537201 -20.429865 -5.837172
39.302925 -19.530212 -5.8366652
48.459175 -19.739876 -5.5501103
48.642548 -19.589451 -5.5412374
49.583412 -19.793482 -5.6950274
88.277466 -19.572458 -5.9710317
88.77726 -19.843964 -5.9855666
89.019279 -19.826605 -5.9579482
38.830864 -19.262039 -5.8158054
39.061092 -19.256016 -5.7916698
39.688972 -19.393194 -5.7671456
40.024799 -19.045862 -5.6505866
48.825226 -19.439466 -5.5328922
54.817009 -19.208889 -5.9046221
55.12199 -19.031956 -5.8292756
55.702587 -19.012491 -5.7652478
54.073719 -18.73629 -5.8752785
54.733696 -18.844242 -5.8258042
55.465759 -18.738953 -5.7222652
56.190811 -18.903299 -5.6912537
86.360847 -18.654659 -5.9786882
-23.487309 -18.401464 -5.5090446
-22.760719 -18.396992 -5.5184441
1.0265067 -18.497355 -5.9713945
53.761929 -18.139626 -5.7722502
87.679321 -18.385242 -5.755507
53.611012 -17.730526 -5.6955857
54.982918 -17.725992 -5.5295882
0.56256247 -17.463465 -5.7392716
16.156651 -17.239555 -5.94519
54.450977 -17.420504 -5.5188899
0.13673408 -16.512892 -5.5262899
16.016834 -16.839973 -5.8911028
19.242504 -16.713827 -5.5727692
15.817127 -16.261114 -5.8142695
108.47575 -16.264349 -5.5814905
0.85811841 -15.801143 -5.5409317
1.181619 -15.785199 -5.593317
1.6777763 -15.760756 -5.6743135
2.1853764 -15.735758 -5.7578354
2.7081347 -15.710023 -5.8446836
3.2437274 -15.683664 -5.9343371
3.6097589 -15.665656 -5.9960651
15.62691 -15.701485 -5.7415166
108.53652 -15.978436 -5.5316486
-5.4755888 -15.315794 -5.9552851
15.506018 -15.340385 -5.6955585
16.820286 -15.120769 -5.970521
29.935732 -15.038756 -5.9928241
112.08985 -15.005544 -5.9158731
-5.4807463 -14.82984 -5.8914022
15.35063 -14.824329 -5.6345401
29.936533 -14.707352 -5.9480834
54.296177 -14.81267 -5.5065546
112.12167 -14.711678 -5.8694296
-5.4848623 -14.194777 -5.8093872
29.942455 -14.216386 -5.8821597
-5.4836168 -13.726149 -5.7495475
29.94755 -13.735088 -5.8188024
63.457462 -13.826862 -5.9415169
-5.4824095 -13.267603 -5.6924162
29.947477 -13.267997 -5.7596054
50.7043 -13.131034 -5.5839658
63.463104 -13.183083 -5.8595185
-5.4808459 -12.668884 -5.6196704
29.947376 -12.658467 -5.6842251
51.013157 -12.623154 -5.545064
53.147041 -12.651377 -5.9988542
63.462688 -12.714124 -5.8020215
112.31708 -12.765316 -5.5756226
112.84605 -12.63969 -5.6564808
113.24165 -12.677714 -5.7392387
-5.4797044 -12.228852 -5.5675945
29.947294 -12.210743 -5.6302495
51.115116 -12.455378 -5.5332403
63.462135 -12.103477 -5.7292256
-5.4893012 -11.803188 -5.5205278
29.947205 -11.771927 -5.578732
63.461723 -11.655714 -5.6773872
113.34087 -11.771004 -5.6205502
113.54195 -11.51223 -5.622963
121.82236 -11.501022 -5.9981737
29.947113 -11.339851 -5.5290923
63.480251 -11.204227 -5.6227288
113.62883 -11.171591 -5.5917168
121.81187 -11.173472 -5.9687071
122.72948 -11.27508 -5.8494902
63.534103 -10.742348 -5.5617142
103.79907 -10.745117 -5.5744362
113.78567 -10.751773 -5.5653067
121.80252 -10.849844 -5.9404082
122.86923 -10.776163 -5.8264704
63.55965 -10.303872 -5.5096774
103.71328 -10.407164 -5.5290608
113.91502 -10.448321 -5.5509787
122.97294 -10.404855 -5.8109498
123.26555 -10.134188 -5.845531
20.134897 -9.5793152 -5.9745884
20.015459 -9.2771749 -5.9112058
19.846519 -8.838809 -5.8214726
19.637211 -8.2770777 -5.7101555
24.620703 -8.2402554 -5.9959245
19.445686 -7.7402096 -5.6081219
24.41567 -7.6969051 -5.8857036
24.515926 -7.9654822 -5.9396205
-7.8268785 -7.2154951 -5.5465941
19.312397 -7.3516788 -5.5369983
24.273804 -7.3055944 -5.8093214
61.847702 -7.1232357 -5.554822
62.195061 -7.3935351 -5.505784
24.098072 -6.8016338 -5.7145586
60.047867 -6.7812262 -5.8967075
60.970257 -6.7559991 -5.706048
61.39032 -6.883934 -5.6296391
23.937408 -6.3171234 -5.627738
56.767921 -6.2502451 -5.9698772
23.790754 -5.8500576 -5.5483007
56.709415 -5.7930269 -5.9105034
21.312336 -4.6119189 -5.8427987
21.331057 -4.3922229 -5.8355441
29.938877 -3.6971231 -5.979352
29.939213 -3.2455952 -5.9529381
29.939529 -2.797437 -5.9290915
46.694603 -2.5117869 -5.9763398
-22.16518 -2.2924011 -5.9709053
9.4656887 -2.2105737 -5.6406689
15.576491 -2.0889463 -5.8308587
29.947901 -2.2404642 -5.9008374
46.746742 -2.169347 -5.9471803
-22.042828 -1.7749172 -5.925621
9.4479103 -1.8128155 -5.606143
15.577185 -1.758234 -5.8173132
29.952297 -1.6879038 -5.8772402
46.804565 -1.7187419 -5.9135857
-22.000854 -1.4523264 -5.9079399
-21.966381 -1.1614649 -5.8941784
15.578087 -1.3188503 -5.8012819
29.952612 -1.2487513 -5.8620481
46.811279 -1.2782254 -5.8960848
-21.920393 -0.71781278 -5.8767819
15.579178 -0.77187926 -5.7847466
29.952911 -0.81127405 -5.8492527
46.8022 -0.73207569 -5.8823504
-21.879665 -0.27665189 -5.8631897
15.58023 -0.22654884 -5.7716837
29.953264 -0.26626429 -5.8367219
46.775032 -0.18869394 -5.8768582
-21.842381 0.21983197 -5.8530898
15.578766 0.2088303 -5.7645741
29.953598 0.27749184 -5.82763
46.760937 0.24609172 -5.8731828
-21.827869 0.76357532 -5.8524823
15.577385 0.75273579 -5.7589917
29.94828 0.71197063 -5.8245411
46.73764 0.68072629 -5.8742762
-21.82711 1.2602968 -5.8583794
15.578221 1.2968322 -5.7562447
29.943336 1.2552074 -5.8236408
46.72348 1.2246898 -5.8751068
-21.834673 1.7014369 -5.8684006
15.578865 1.7327111 -5.7567816
29.944016 1.7990062 -5.8246727
46.73428 1.7688081 -5.8727798
15.579636 2.2789366 -5.7608838
29.944542 2.2349157 -5.8282347
46.733898 2.204824 -5.8760271
15.580374 2.8271251 -5.7684364
29.945053 2.6719582 -5.834147
46.73341 2.7512865 -5.8835244
15.589245 3.2666354 -5.7751102
29.945671 3.2205391 -5.8449993
15.597607 3.7081454 -5.7843132
29.944706 3.7721953 -5.8597541
15.597435 4.2651291 -5.8021202
29.943623 4.2163858 -5.8744707
72.703354 4.2807374 -5.8679314
15.59724 4.8265896 -5.8235402
29.944099 4.6631598 -5.8912382
72.630043 4.6740541 -5.8663201
15.597056 5.2798433 -5.8436279
29.944674 5.2263494 -5.9158502
121.58421 5.1308308 -5.550106
15.596852 5.7370715 -5.8662972
29.945234 5.7949381 -5.9441957
-16.582897 6.3259883 -5.9993258
-15.634784 6.3802118 -5.804677
-14.771832 6.4370875 -5.6284237
15.590977 6.2001905 -5.8930917
15.585709 6.6681633 -5.9224243
34.807938 6.7867827 -5.5425758
15.586421 7.2590184 -5.9612007
34.934925 7.1509352 -5.605813
35.024693 7.4003301 -5.650578
15.586974 7.7375059 -5.9950614
35.167458 7.7851248 -5.7218599
35.372208 8.3176546 -5.8242383
35.537254 8.732873 -5.9068737
44.282291 8.9144154 -5.8859577
47.670269 8.9505033 -5.570981
58.372963 8.8700895 -5.5173306
13.009482 9.0996513 -5.7987895
35.653847 9.0188427 -5.9653034
44.291607 9.2680044 -5.9239721
47.647064 9.2020035 -5.5833826
58.451729 9.0894566 -5.5187612
58.53051 9.3088408 -5.5207047
44.412651 9.561141 -5.9850354
58.594154 9.659647 -5.5382781
41.467545 10.444662 -5.5122304
58.661732 10.138006 -5.5680838
41.468018 10.83679 -5.5499406
58.675941 10.645275 -5.6140265
69.058029 10.854946 -5.5383177
119.6837 10.754643 -5.5567875
41.468502 11.233775 -5.5891771
58.670013 11.170401 -5.6680617
69.146339 11.31023 -5.5990343
119.84274 11.234339 -5.6320572
41.458649 11.642311 -5.633008
58.642559 11.716194 -5.730814
69.238647 11.775602 -5.6626148
119.95414 11.56275 -5.6848392
120.06973 11.898024 -5.7396479
125.64235 11.798143 -5.5598826
41.459675 12.189349 -5.690609
58.625149 12.268826 -5.7943544
69.336189 12.254421 -5.729948
120.18974 12.240499 -5.7965908
125.78497 12.15076 -5.6249886
-21.834822 12.787649 -5.5326343
-11.728453 12.76956 -5.5153093
41.460732 12.74798 -5.7516136
58.589951 12.843424 -5.8661175
69.438148 12.74474 -5.8004436
120.37895 12.769571 -5.8864574
-21.833832 13.31269 -5.5913033
-11.728689 13.212244 -5.5621333
41.46183 13.319021 -5.8161745
58.591125 13.267705 -5.9149451
69.545906 13.250412 -5.8750906
120.57794 13.315074 -5.98105
-21.832968 13.757604 -5.6423974
-11.72893 13.663896 -5.6113291
41.462677 13.755555 -5.8669124
46.739784 13.748037 -5.5034966
58.597061 13.697252 -5.9648051
69.658577 13.769168 -5.9532504
-21.832077 14.231296 -5.6981254
-11.750019 14.292206 -5.6854534
41.462006 14.201845 -5.9204926
46.739861 14.190989 -5.5511971
-21.831179 14.6937 -5.7537951
-11.749656 14.76342 -5.7395844
41.461357 14.655568 -5.9760909
46.739952 14.793777 -5.6180134
-21.830099 15.262917 -5.8240452
-11.749294 15.245269 -5.7964034
46.740021 15.255514 -5.6706166
-21.840422 15.764742 -5.8893595
-11.74893 15.736102 -5.8554711
46.740089 15.72752 -5.725842
-21.840181 16.191343 -5.9444275
-11.748572 16.23876 -5.9174595
46.740147 16.208158 -5.7832408
-21.840054 16.510998 -5.9862418
-11.748215 16.751394 -5.9818878
43.72945 16.540359 -5.5741653
46.734657 16.704243 -5.8449259
80.944435 16.973169 -5.5830245
82.207619 16.873163 -5.7845368
82.800415 16.738518 -5.8668742
29.951515 17.356829 -5.8740149
43.940861 17.059256 -5.6807666
46.729362 17.209955 -5.9089513
80.312729 17.489918 -5.5863667
81.893471 17.321379 -5.8181725
82.082588 17.051807 -5.7975159
82.744194 17.159231 -5.9382157
29.951714 17.703474 -5.9180083
44.16367 17.602154 -5.7931461
46.729713 17.72431 -5.9745922
80.728943 17.535107 -5.66394
81.154625 17.580116 -5.7441459
81.702736 17.592619 -5.8400264
-35.422123 18.220873 -5.5373449
29.951914 18.055574 -5.9633036
44.398697 18.170803 -5.911715
79.070793 18.195103 -5.5488982
-35.417896 18.630703 -5.5913458
-9.1723175 18.711575 -5.5838699
80.85202 18.793852 -5.951395
90.558434 18.790592 -5.7111039
-35.422195 19.2752 -5.6790209
-9.0342712 19.126614 -5.667901
-8.8860846 19.10533 -5.6458859
-8.1746645 19.166979 -5.5833797
-7.7838125 19.431599 -5.6088762
77.062927 19.160378 -5.5038996
80.649796 19.077513 -5.980917
85.001472 19.314936 -5.5554619
90.576759 19.23443 -5.8208508
91.462128 19.471474 -5.9900718
91.832306 19.247433 -5.9859338
-8.744689 19.833778 -5.8080602
-8.1644659 19.803228 -5.7395306
-7.7797503 19.839487 -5.7103601
58.960014 19.721043 -5.6470628
59.099236 19.913866 -5.6763763
60.122875 19.69039 -5.5115256
85.695152 19.699087 -5.7212706
-22.669817 20.097261 -5.7254052
-22.185331 20.091114 -5.6948318
-7.7173433 20.015678 -5.7480454
-7.2886791 20.259182 -5.7692995
-6.8490171 20.475716 -5.7852554
17.317345 20.237099 -5.6124964
59.239929 20.108774 -5.7065821
59.565907 20.417622 -5.7445574
60.087727 20.288069 -5.6590767
61.009689 20.236645 -5.5573511
-7.2093945 20.520023 -5.8278198
-6.634232 20.516365 -5.7776194
-6.363379 20.567537 -5.7688389
58.593296 20.786785 -5.5431204
60.197113 20.848667 -5.7839832
60.481556 21.007364 -5.7952476
60.800896 21.384802 -5.8585911
76.98465 21.025122 -5.9415755
29.250662 21.904812 -5.9791536
60.97916 21.532846 -5.8794537
61.313545 21.569874 -5.8603544
61.745365 21.651829 -5.8461051
83.199196 23.301634 -5.9763994
90.172455 23.483297 -5.628118
55.206623 23.84726 -5.653089
82.768402 23.625116 -5.9810042
72.69738 25.020241 -5.9445648
18.459639 27.719769 -5.9906726
-0.08086177 -33.066406 -5.0075889
-12.938229 -29.002815 -5.1882839
-12.91505 -28.459759 -5.1138296
-12.917685 -27.96834 -5.0496607
-17.678108 -25.068045 -5.3196564
-17.223459 -25.037844 -5.251761
-16.778311 -25.007338 -5.1858163
-16.37068 -25.004965 -5.1287513
-15.810873 -25.038681 -5.0555744
98.015701 -25.240124 -5.2964411
98.11245 -24.767096 -5.2300959
98.309402 -24.189529 -5.1562014
98.775826 -24.147539 -5.18787
99.090294 -24.119287 -5.2098927
-7.757051 -22.681068 -5.2411528
100.26627 -22.709249 -5.1029015
92.945374 -22.331688 -5.1684103
2.8930655 -21.700388 -5.2690892
102.58549 -21.53261 -5.1660657
103.02766 -21.632553 -5.2270923
1.2798518 -21.362803 -5.3130522
1.8349211 -21.226746 -5.2424154
2.3143754 -21.259317 -5.2146335
2.6874738 -21.23344 -5.1836548
3.2161155 -21.451294 -5.1957827
88.731537 -21.436752 -5.1979842
101.68748 -21.27844 -5.0365067
102.13063 -21.403885 -5.1002016
103.12366 -21.283846 -5.1896596
1.0522538 -20.712641 -5.1972547
2.210983 -20.883139 -5.143034
3.6391008 -20.856119 -5.0430479
77.2799 -20.818573 -5.3443494
103.26462 -20.770592 -5.1355181
0.8671217 -20.290421 -5.1264153
1.7742975 -20.161375 -5.0257788
87.193947 -20.115639 -5.0754008
103.40269 -20.266724 -5.0833011
-11.519534 -19.743689 -5.1647811
-5.4894834 -19.709976 -5.1739349
47.531147 -19.972652 -5.4938688
-11.518136 -19.147345 -5.0935264
-5.4885278 -19.310009 -5.1250958
47.335045 -19.08222 -5.289907
47.693039 -19.28562 -5.3710442
-11.517229 -18.759291 -5.0478253
-5.4871335 -18.724371 -5.0545759
29.852259 -18.739723 -5.1282024
38.234291 -18.925814 -5.4329257
47.707397 -18.83536 -5.2812195
63.459885 -18.699154 -5.1938424
74.199951 -18.554125 -5.203002
-23.221504 -18.341219 -5.4966221
-22.970732 -18.313995 -5.4931393
-11.516341 -18.37801 -5.0034041
29.954832 -18.259212 -5.0583591
38.119694 -18.252649 -5.3379993
63.459717 -18.299709 -5.1469321
74.199371 -18.155487 -5.1622725
79.299622 -18.383833 -5.2098322
38.010509 -17.602058 -5.2474484
63.459465 -17.714714 -5.0792298
74.198814 -17.76392 -5.1227679
79.29747 -17.792185 -5.1601925
37.941128 -17.182503 -5.1898408
54.94595 -17.307356 -5.433763
63.459217 -17.143196 -5.0140715
74.19799 -17.190203 -5.0658627
37.874165 -16.772955 -5.1341867
74.197205 -16.629435 -5.0112114
19.045977 -16.210484 -5.4684324
37.809517 -16.372944 -5.0804076
-0.25552025 -15.635668 -5.3301711
0.53984386 -15.816832 -5.4897108
5.9761777 -15.531764 -5.0382857
6.3963366 -15.510935 -5.0968513
18.85898 -15.72753 -5.3691254
37.747101 -15.982062 -5.0284314
56.395309 -15.850025 -5.2133889
108.59606 -15.697449 -5.4832087
-0.15062822 -15.381713 -5.309813
6.8235474 -15.487748 -5.1564236
7.3436255 -15.341185 -5.21733
18.729946 -15.156221 -5.1496344
108.65443 -15.421209 -5.4361281
7.6050258 -14.982155 -5.2195144
18.511177 -14.817459 -5.1843295
19.185646 -14.755727 -5.0897946
52.1292 -14.583468 -5.1057944
108.29532 -14.610484 -5.2201576
108.66043 -14.58028 -5.2699203
109.54081 -14.507869 -5.3946791
18.349287 -14.387961 -5.098269
46.704597 -14.022879 -5.0665388
52.757557 -14.447569 -5.1872921
53.143791 -14.363716 -5.238687
108.90332 -14.232976 -5.2401085
109.80071 -14.486604 -5.4328256
110.06451 -14.465065 -5.4721208
18.194763 -13.974058 -5.0160923
46.868576 -13.796465 -5.0393991
54.056179 -13.992494 -5.33779
58.135651 -13.862222 -5.0457516
109.64581 -13.536138 -5.2296634
110.9464 -13.245126 -5.4033031
111.02946 -13.033749 -5.3816071
126.57248 -13.003168 -5.3736053
39.942825 -12.859962 -5.0466781
40.535957 -12.868832 -5.1403399
41.152557 -12.878054 -5.238194
41.794186 -12.88765 -5.3405185
42.462547 -12.897646 -5.4476128
53.42503 -12.611047 -5.0175724
60.378635 -12.918669 -5.2590218
111.80717 -12.889311 -5.4998617
126.56106 -12.660686 -5.3455133
49.73484 -12.401704 -5.2453651
53.586544 -12.471189 -5.0260649
54.074516 -12.048092 -5.0544457
60.841133 -12.094663 -5.0798922
111.99033 -12.481812 -5.4672809
126.5504 -12.322612 -5.3185163
49.730225 -11.757959 -5.1150727
54.32074 -11.834283 -5.0703583
54.568375 -11.619058 -5.0872784
55.371628 -11.779308 -5.2613173
55.704819 -11.602733 -5.301827
60.785362 -11.761217 -5.0410581
112.12475 -11.501157 -5.337934
112.64863 -11.647156 -5.4637251
126.53589 -11.823851 -5.280138
-5.4975204 -11.243338 -5.4596233
29.945007 -11.057276 -5.4977164
60.731472 -11.433369 -5.0034819
126.51892 -11.172024 -5.2323847
-5.4781747 -10.681051 -5.3954916
29.94544 -10.776348 -5.4666142
51.855858 -10.730131 -5.3738031
126.50793 -10.692437 -5.1990442
-5.4687119 -10.135477 -5.3371334
29.946074 -10.360896 -5.4216862
63.569038 -10.02019 -5.4780741
103.63103 -10.075926 -5.4855084
126.49575 -10.0657 -5.1580768
126.50151 -10.377414 -5.1780939
-5.4835448 -9.7433033 -5.3005981
29.946892 -9.8163643 -5.3645668
63.475647 -9.5178299 -5.4446564
63.523907 -9.7674065 -5.4606333
103.55217 -9.7510757 -5.4436927
126.49065 -9.7572384 -5.1389756
-5.5833416 -9.2636862 -5.2735815
29.947878 -9.1502581 -5.2975845
52.765587 -9.327899 -5.351759
63.367966 -9.1631298 -5.4305334
103.4404 -9.275856 -5.3843155
126.48425 -9.30056 -5.1121016
132.35091 -9.2565308 -5.3625469
-5.8312387 -8.7197351 -5.2715063
29.948448 -8.7584953 -5.2598581
63.162231 -8.7211494 -5.4285774
103.30171 -8.6609545 -5.3104501
126.47781 -8.7012634 -5.0791659
132.33192 -8.6529808 -5.321775
-6.2297115 -8.2310877 -5.3073325
29.947567 -8.2443953 -5.2123837
52.243164 -8.4706898 -5.0974674
62.909752 -8.2989426 -5.4397717
103.20506 -8.2128086 -5.2588205
126.47451 -8.2585087 -5.0565796
132.31923 -8.2074986 -5.2934065
-7.1502514 -7.5230174 -5.4333682
-6.7610092 -7.7792549 -5.3755922
29.946758 -7.7387552 -5.1677313
62.371304 -7.5907598 -5.4863348
62.623611 -7.8875093 -5.4607382
103.1154 -7.7766476 -5.2107711
126.47269 -7.8219872 -5.0360394
132.30801 -7.7687054 -5.2671785
-7.4787111 -7.368969 -5.4877052
19.228735 -7.0996051 -5.4922924
29.947578 -7.2404127 -5.1254349
102.97829 -7.0701427 -5.1369972
103.03108 -7.3493862 -5.165453
126.47223 -7.2476892 -5.0113153
132.29662 -7.1924667 -5.2352924
19.11064 -6.731101 -5.4290915
29.948372 -6.7494617 -5.0857873
56.870731 -6.8685808 -5.1315656
102.90406 -6.6590624 -5.0968308
132.29382 -6.7675304 -5.214263
18.964851 -6.2545538 -5.3509045
29.949146 -6.2653522 -5.0487003
53.331425 -6.164772 -5.0653815
102.83463 -6.2553201 -5.059124
132.29285 -6.3479052 -5.1952839
18.832266 -5.7941599 -5.2795906
23.689007 -5.5096755 -5.493062
29.949896 -5.7875528 -5.0140886
53.337585 -5.8833385 -5.035428
74.187531 -5.590519 -5.3321695
102.77094 -5.8600578 -5.0243416
132.29344 -5.794765 -5.1725388
18.684471 -5.2395186 -5.1997809
23.595047 -5.1782999 -5.4419208
44.50642 -5.3885994 -5.4971895
74.187408 -5.2304416 -5.3131523
132.29626 -5.2486391 -5.1527929
18.553461 -4.7032871 -5.1286964
22.877087 -4.7105603 -5.1068921
23.452179 -4.6411829 -5.363904
23.507048 -4.8535619 -5.3939114
45.280304 -4.932466 -5.309618
45.623646 -4.6005783 -5.2191253
74.187271 -4.7551861 -5.2897115
107.63901 -4.6049309 -5.3120189
132.30127 -4.7088251 -5.1359835
18.483032 -4.3900008 -5.0902905
18.705687 -4.2449117 -5.1396155
22.894316 -4.474956 -5.1004486
23.351603 -4.225791 -5.3086982
45.841084 -4.306962 -5.1574893
46.051266 -4.0207591 -5.0982852
58.927559 -4.1789994 -5.2782693
74.192513 -4.2838974 -5.2672701
107.57745 -4.2302866 -5.2774439
23.238941 -3.719183 -5.2465401
46.193001 -3.7547865 -5.054934
58.890629 -3.7163692 -5.2447376
74.19725 -3.8178167 -5.2471457
107.4846 -3.6175096 -5.2249317
107.52009 -3.8607047 -5.2450705
132.32036 -3.5137517 -5.1084938
-23.102139 -3.4965985 -5.1086903
-22.738037 -3.2681315 -5.1041174
23.142807 -3.2272561 -5.1930442
46.332348 -3.4933004 -5.0128164
58.85775 -3.2596412 -5.2143803
74.19632 -3.2434819 -5.2267356
107.43535 -3.2570643 -5.1968079
132.32608 -3.2513878 -5.1043243
-22.336918 -2.7415833 -5.0834298
23.060379 -2.7462268 -5.1467247
41.457932 -2.6274223 -5.054203
58.828831 -2.8081145 -5.1871138
66.169189 -2.9283531 -5.4395328
74.195427 -2.6748471 -5.2093778
107.37614 -2.7831078 -5.1626854
132.33572 -2.8597417 -5.0994391
-22.158167 -2.2677794 -5.0330043
22.980507 -2.1821625 -5.1010876
23.017706 -2.4624653 -5.1224775
41.457466 -2.1830506 -5.0423784
58.798294 -2.2502105 -5.1574059
74.194748 -2.2239394 -5.1978865
107.32449 -2.316257 -5.1325059
132.35034 -2.3403916 -5.0951872
-22.059574 -1.9214765 -5.0043406
22.929159 -1.7207974 -5.0709953
41.457024 -1.7411987 -5.0325398
58.773239 -1.6977475 -5.1319618
74.198036 -1.7754834 -5.1874933
107.27055 -1.7415379 -5.1003299
132.3671 -1.8239539 -5.0936351
22.889931 -1.2649734 -5.047214
41.456596 -1.3014858 -5.0246687
58.757492 -1.2593408 -5.114944
74.237976 -1.3251736 -5.1706157
107.22697 -1.1742355 -5.0735416
132.38596 -1.3098712 -5.0947547
22.86425 -0.81375867 -5.030477
41.455448 -0.75442743 -5.0178032
58.745388 -0.82332307 -5.10074
107.20018 -0.72520024 -5.0563107
132.40694 -0.79755771 -5.0985365
22.849394 -0.27565041 -5.0186715
39.087273 -0.33299235 -5.3424859
41.454277 -0.20929408 -5.0137587
58.735485 -0.28080291 -5.0870204
107.18019 -0.2794019 -5.0426073
132.43005 -0.28647688 -5.1049776
22.852341 0.26107129 -5.0160899
41.454659 0.22582667 -5.0124669
58.73077 0.26014969 -5.0772963
107.16499 0.27447 -5.0305386
132.47382 0.22300903 -5.1176772
22.867996 0.70909429 -5.0207582
28.129854 0.77469397 -5.3172851
33.065022 0.91773438 -5.0655622
41.455151 0.76898551 -5.0136375
58.73114 0.69239521 -5.0726957
107.15948 0.82617837 -5.0234842
132.51031 0.60522544 -5.1293235
33.278084 1.2081949 -5.1031971
41.455666 1.3119686 -5.0175939
58.736759 1.2330961 -5.0708971
107.16277 1.2668327 -5.021811
34.054512 1.5314776 -5.2400031
41.456093 1.7466986 -5.0229869
58.747578 1.7751124 -5.0730634
107.17268 1.7077396 -5.0235457
33.710678 2.2898474 -5.0065117
41.454964 2.1821942 -5.0306549
58.760406 2.2105303 -5.0779777
107.19476 2.2604544 -5.0307002
33.494431 2.9411147 -5.153367
33.821911 2.73492 -5.085535
41.45406 2.7281811 -5.0429492
58.781742 2.7581224 -5.0881457
107.22665 2.8160307 -5.0428786
33.870884 3.3098631 -5.0819964
41.454773 3.2762084 -5.0577288
58.808464 3.3100142 -5.1023908
107.25089 3.1514137 -5.0527992
33.96553 3.7894397 -5.1275315
41.455368 3.716826 -5.0718613
58.834221 3.7557511 -5.1170969
34.07629 4.2829456 -5.1813388
41.456123 4.271029 -5.0924525
58.863831 4.2058353 -5.1347065
9.139389 4.920311 -5.1354566
34.202003 4.7906866 -5.2428141
41.456909 4.8292699 -5.1160221
58.897385 4.6609087 -5.1552782
9.1217442 5.2957315 -5.1158094
34.315247 5.2098684 -5.2984843
41.454868 5.2801924 -5.1379323
58.945232 5.2381558 -5.1854324
9.0981102 5.7971435 -5.0906
34.440086 5.6417198 -5.3600874
34.541363 5.9743209 -5.4101977
41.45256 5.7349186 -5.1620407
58.987698 5.7064209 -5.212687
59.010723 5.9435525 -5.2276592
-13.99275 6.4989457 -5.4703493
9.0743275 6.2998962 -5.0665665
34.650696 6.3164873 -5.4644222
41.452858 6.193244 -5.1877327
59.047478 6.3031225 -5.2517657
68.303268 6.1844082 -5.0281277
-13.225555 6.6742411 -5.3214359
-12.722075 6.9072275 -5.2309556
41.453171 6.656086 -5.2156496
59.100281 6.7895947 -5.2867417
68.367737 6.6723213 -5.0707092
118.55647 6.8139992 -5.0274181
-12.535033 7.1002975 -5.2039366
-12.386178 7.302917 -5.1858025
41.453583 7.2420025 -5.253901
59.157795 7.2852402 -5.3252239
68.437233 7.169765 -5.1169281
118.68301 7.3288918 -5.0862894
-12.144832 7.7221375 -5.1635933
41.45401 7.8360419 -5.2955999
59.220234 7.790988 -5.3673644
68.492615 7.5492897 -5.1539545
68.531342 7.8059964 -5.1799417
118.81989 7.8571973 -5.1501894
-12.00082 8.1727877 -5.1648536
-11.941257 8.4029827 -5.1691861
28.249981 8.2439079 -5.0127096
41.459782 8.3165007 -5.3305216
59.287804 8.3077984 -5.4133153
68.592224 8.1969795 -5.2209396
118.92935 8.2625847 -5.2014251
-11.89685 8.7670441 -5.1870527
9.8974876 8.948061 -5.1568928
28.153877 8.8337317 -5.0261564
41.465675 8.803443 -5.3679399
59.360771 8.8367262 -5.4632626
68.678276 8.7288189 -5.2791138
119.04597 8.6779318 -5.2561345
-11.839758 9.2577848 -5.2134399
11.366734 9.0196323 -5.4597721
41.466225 9.2994614 -5.4092627
44.907757 9.2990198 -5.0119915
45.432205 9.2911682 -5.1212082
45.980293 9.2829638 -5.2358556
46.553719 9.2743788 -5.3563132
47.154427 9.2653856 -5.483026
68.770424 9.2743378 -5.3416767
119.21156 9.2462978 -5.3339796
-11.790079 9.7576914 -5.2441082
15.57965 9.8487473 -5.0191708
41.466801 9.8032675 -5.4533014
68.869019 9.8347626 -5.408884
119.38998 9.8336525 -5.418045
-11.748039 10.267992 -5.2792444
41.467239 10.186343 -5.4880838
68.947205 10.265145 -5.4623327
119.53232 10.287112 -5.4852271
125.06122 10.303926 -5.2950125
125.97541 10.212364 -5.446166
-11.719267 10.792662 -5.3203268
69.001686 10.557775 -5.499661
125.24424 10.7859 -5.378346
-11.715714 11.339373 -5.3703938
125.37222 11.116115 -5.4366622
125.50484 11.4534 -5.497139
-11.720524 11.760325 -5.4117451
-11.725682 12.046112 -5.4409084
5.3831739 12.700725 -5.3068328
46.7285 13.463861 -5.4756656
42.66037 13.844127 -5.035655
42.817799 14.250299 -5.1148829
42.982838 14.672235 -5.1979733
43.155952 15.110969 -5.2851548
43.337677 15.567686 -5.376708
43.528629 16.043674 -5.4729333
58.589561 16.314064 -5.0211844
58.588074 16.973478 -5.0935483
84.088867 16.972044 -5.0523677
-35.45816 17.454241 -5.4419823
41.459259 17.24036 -5.0037942
58.588776 17.309448 -5.1309037
78.318275 17.346727 -5.2500935
-35.440304 17.833973 -5.4889107
41.465679 17.754337 -5.0595007
58.589859 17.823677 -5.1890187
76.922394 17.564957 -5.1108127
77.261864 17.605242 -5.1640615
77.725616 17.660866 -5.2386599
78.158112 17.640888 -5.2937484
104.10532 17.798763 -5.0445457
-8.2565794 18.198847 -5.3547988
-7.9753571 18.292711 -5.3471074
41.46566 18.284182 -5.1188188
58.590977 18.348612 -5.2492948
76.825058 18.21562 -5.2514834
77.150322 18.435184 -5.3434048
85.478188 18.039547 -5.4335237
104.14055 18.18276 -5.090591
-7.8934684 18.924063 -5.4941111
41.465652 18.645063 -5.1598625
58.591747 18.706078 -5.2909803
41.465641 19.011984 -5.2020731
58.592934 19.254082 -5.3558588
59.870365 19.263622 -5.4363647
76.385452 19.123672 -5.4162869
76.722015 19.142372 -5.4593849
94.204575 19.150597 -5.182065
94.622894 19.121883 -5.2294021
95.284805 19.374769 -5.35953
95.609268 19.20499 -5.3718271
-21.760067 19.778849 -5.0088258
41.465637 19.764801 -5.2901726
58.590958 19.817299 -5.4239783
80.644852 19.862312 -5.0451722
94.246597 19.582991 -5.2665496
130.2618 19.835644 -5.0621886
-21.746197 20.005184 -5.0330992
-11.731298 20.090748 -5.0043759
41.465633 20.151186 -5.3361306
58.591877 20.199591 -5.4705591
90.933937 20.326237 -5.0452991
94.011635 20.454119 -5.4004931
41.471832 20.739202 -5.4062624
89.863686 20.654736 -5.0138054
90.279076 20.987272 -5.118751
56.970501 21.06035 -5.002903
57.364758 21.054453 -5.0528827
57.766624 21.048443 -5.1043282
58.176468 21.042311 -5.1573005
58.59457 21.036058 -5.2118435
90.71386 21.335817 -5.2292056
77.75679 21.655804 -5.0650053
27.883263 22.201223 -5.0169635
28.045303 22.425493 -5.047483
90.160782 22.034897 -5.3248215
28.209278 22.65263 -5.0789285
28.612547 22.937204 -5.1052618
29.423531 22.807592 -5.0265336
28.887741 23.234219 -5.1445541
29.717941 23.424179 -5.1300931
30.949648 23.496986 -5.0787868
31.223455 23.395132 -5.0454087
77.99575 23.366158 -5.4216537
78.201729 23.228271 -5.4135256
29.328314 23.817728 -5.230999
30.671833 23.600368 -5.1131902
54.865112 23.950697 -5.0967212
77.373093 23.783316 -5.4495258
77.685242 23.574135 -5.4350042
29.66662 24.378227 -5.3219442
30.138386 24.117031 -5.244133
97.564285 24.877832 -5.1523442
97.831795 25.24297 -5.1954327
99.250763 25.436235 -5.1174479
98.390709 25.581985 -5.2110238
98.588913 25.796558 -5.2344904
98.788818 26.01474 -5.2589383
99.253754 26.2728 -5.2714386
100.33712 26.271366 -5.1949606
100.77799 26.107689 -5.1354294
99.78093 26.804659 -5.3322806
99.288864 27.058907 -5.4142003
0.23356549 -32.846184 -4.9662161
0.67911196 -32.661484 -4.930429
1.2393043 -32.682976 -4.9306259
1.7817043 -32.935715 -4.9728165
2.2229795 -32.6031 -4.9166732
-0.27083033 -32.394474 -4.8965359
-0.69349527 -31.54113 -4.7599669
-0.4884471 -31.982918 -4.8306203
-12.937499 -27.513744 -4.9928422
-13.035146 -27.17486 -4.9604502
-13.220896 -26.730801 -4.9258356
-13.658362 -26.171934 -4.9088893
-13.466261 -26.37225 -4.9102397
-14.179706 -25.723383 -4.9196491
-13.858665 -25.982534 -4.9104819
-15.180563 -25.185276 -4.9870768
-14.652403 -25.427151 -4.9453993
14.399752 -23.702684 -4.6685481
14.2375 -23.144373 -4.6107006
14.081888 -22.605665 -4.555387
-0.43037421 -22.356062 -4.93293
13.932548 -22.085455 -4.5024714
48.135643 -21.730362 -4.7167058
-0.88258904 -21.040062 -4.7201042
48.199745 -21.299894 -4.6521854
3.9656165 -20.535629 -4.9552798
48.088226 -20.542419 -4.5199432
89.256332 -20.532387 -4.97997
39.76104 -20.197235 -4.8850083
40.091614 -20.24201 -4.8712749
48.253635 -20.343664 -4.5025382
49.4217 -20.464064 -4.6292486
49.73008 -20.264862 -4.6277485
50.286716 -20.467642 -4.7139611
50.577736 -20.46167 -4.7421989
88.379669 -20.251974 -4.9954624
-1.2936907 -19.842402 -4.5266876
39.22541 -19.731627 -4.8299313
56.348091 -19.759281 -4.8197927
87.613884 -19.683901 -4.9538388
88.227859 -19.65922 -4.8939075
88.780624 -19.780939 -4.8705292
38.799244 -19.329947 -4.782939
39.080643 -19.187887 -4.7316394
54.551563 -19.255373 -4.8678441
55.411751 -19.462858 -4.8337708
55.673576 -19.381638 -4.7961621
88.005692 -19.294533 -4.8434834
89.218765 -19.158091 -4.7134762
39.84552 -18.910934 -4.6168327
54.238029 -18.879433 -4.8239908
54.955757 -18.847668 -4.751646
55.330444 -18.771978 -4.7039952
56.053299 -18.955172 -4.6807008
86.628708 -18.832197 -4.8898773
-11.536525 -18.020947 -4.9649076
-5.4857779 -18.152407 -4.986691
53.890743 -18.09717 -4.7077994
56.485619 -18.341339 -4.5240927
86.356552 -18.366539 -4.8323441
87.356239 -18.275879 -4.7118092
87.711716 -18.263947 -4.6746078
-11.534755 -17.651388 -4.9227004
-5.4698544 -17.767284 -4.9398012
30.022003 -17.819593 -4.9981608
53.719093 -17.73115 -4.6559358
54.952782 -17.775675 -4.5426416
-11.522621 -17.279621 -4.8794198
-5.4696331 -17.401655 -4.8975883
30.030993 -17.254063 -4.9311218
-5.4692116 -16.688049 -4.8166494
30.021217 -16.716476 -4.8706045
63.454308 -16.77478 -4.9733024
-5.4690056 -16.33968 -4.7778387
29.988197 -16.035812 -4.7982807
30.003859 -16.3743 -4.8341079
63.454681 -16.22772 -4.9127741
74.196701 -16.263845 -4.9762287
-5.468708 -15.827697 -4.7217331
2.2119873 -15.718508 -4.5246067
2.7327805 -15.692656 -4.5944033
3.266309 -15.666174 -4.6663146
3.630897 -15.648083 -4.7157407
4.191946 -15.620247 -4.7922115
4.76791 -15.591678 -4.8711429
5.1623254 -15.572118 -4.925488
5.5649605 -15.552153 -4.9811835
9.3809357 -15.632979 -4.8618159
9.612318 -15.755806 -4.870822
29.979656 -15.696893 -4.7619677
37.686813 -15.599881 -4.9781766
63.455044 -15.692382 -4.8544893
70.149231 -15.775659 -4.91257
74.190552 -15.73144 -4.9270096
-6.8234839 -15.388738 -4.5758176
-6.3486271 -15.354204 -4.6149178
-5.4684281 -15.325813 -4.6676559
7.5630212 -15.331879 -4.988265
8.7952604 -15.246556 -4.825233
16.260113 -15.069023 -4.5820632
16.851309 -15.064263 -4.685463
17.467009 -15.059321 -4.7934799
18.108946 -15.054186 -4.906456
29.957485 -15.20513 -4.7114582
37.628586 -15.226016 -4.9295831
63.455276 -15.342871 -4.81707
70.114403 -15.22871 -4.8575177
74.188789 -15.206637 -4.8788066
93.972176 -15.348684 -4.7323241
94.273697 -15.331104 -4.6888962
-8.2617083 -14.733556 -4.5960784
-7.7486444 -14.788952 -4.6366158
-7.3418975 -14.913264 -4.617043
-5.4730229 -14.839289 -4.6170025
7.2915597 -14.736173 -4.8796058
8.223918 -14.846146 -4.7909274
8.6058331 -14.852541 -4.7482772
29.944483 -14.715944 -4.660954
37.545155 -14.680985 -4.8598528
49.841812 -14.66457 -4.7619958
55.952137 -14.594888 -4.8717828
56.10677 -14.501963 -4.8726368
63.455616 -14.829231 -4.7630053
70.08149 -14.696257 -4.8052683
74.18708 -14.695011 -4.8329802
92.60714 -14.608662 -4.7716842
93.228783 -14.783142 -4.7150974
93.566498 -14.913376 -4.6942282
120.64888 -14.702309 -4.6800575
-8.6621962 -14.380574 -4.6069469
-5.4766111 -14.203644 -4.5519996
7.0731826 -14.099059 -4.758471
8.0696936 -14.074814 -4.6224489
9.513483 -14.49688 -4.5614715
29.949898 -14.225168 -4.6089916
37.46545 -14.150817 -4.7931261
56.3386 -14.362001 -4.8747401
56.570381 -14.221413 -4.8776693
63.455944 -14.32569 -4.710928
70.050041 -14.174766 -4.7551637
74.18541 -14.193385 -4.7889657
92.162064 -14.286873 -4.7757921
93.199348 -14.031335 -4.5612354
120.63109 -14.165703 -4.6349554
-9.0738573 -13.602299 -4.5441456
-8.9918823 -13.777732 -4.5712838
-5.4754496 -13.734907 -4.504673
6.9460015 -13.825858 -4.7125864
8.1449213 -13.615092 -4.5027156
18.047174 -13.57478 -4.9375753
29.954491 -13.744051 -4.5590467
37.414673 -13.806764 -4.7505484
45.919334 -13.903898 -4.919107
46.182301 -13.683322 -4.9058747
50.380409 -13.779476 -4.6896515
50.538769 -13.518992 -4.670383
63.461273 -13.830644 -4.6601977
70.030006 -13.834048 -4.7231297
91.72303 -13.613749 -4.7134972
92.839165 -13.5978 -4.5268998
120.62006 -13.814781 -4.6062016
-9.1548176 -13.428951 -4.517765
17.906111 -13.18926 -4.8624997
29.954395 -13.431217 -4.5275698
37.341873 -13.303921 -4.6893969
46.889557 -13.217813 -4.9088087
50.580692 -13.281237 -4.6370831
63.465935 -13.187426 -4.5960984
69.991959 -13.167375 -4.6620297
70.010651 -13.498324 -4.6920991
77.997253 -13.107252 -4.5049615
91.437645 -13.235745 -4.6887589
91.587738 -13.327786 -4.6804299
92.334755 -13.099148 -4.5077186
120.6047 -13.298115 -4.5649571
17.771217 -12.816637 -4.7906775
37.272289 -12.813586 -4.6308389
38.821369 -12.84318 -4.8709493
39.371735 -12.851419 -4.9569573
50.764923 -12.918114 -4.6068211
57.417782 -12.697836 -4.6903305
57.560459 -12.597963 -4.6940565
63.465485 -12.718419 -4.5509996
69.965202 -12.680067 -4.6187887
120.59049 -12.790687 -4.5255508
17.580372 -12.281685 -4.6890054
37.206528 -12.337921 -4.5753551
57.680489 -12.339958 -4.6630235
58.277275 -12.094402 -4.7194538
69.939674 -12.201491 -4.577354
72.081474 -12.061082 -4.8818636
120.58177 -12.458258 -4.5004549
17.400255 -11.769008 -4.5929894
22.416494 -11.626539 -4.8816113
22.540537 -11.967934 -4.9483914
57.749504 -11.901369 -4.5888376
58.421513 -11.992717 -4.725904
58.711231 -11.788066 -4.740355
69.961311 -11.90814 -4.5579662
70.275642 -11.769751 -4.5936279
71.149612 -11.910517 -4.7328749
17.286865 -11.441007 -4.5325022
22.297655 -11.295679 -4.8176036
47.314358 -11.115684 -4.5158405
47.548641 -11.028958 -4.5410872
60.679401 -11.110851 -4.9671249
121.90654 -11.210933 -4.6007757
122.60477 -11.221343 -4.6999798
22.129141 -10.818979 -4.7267838
47.747047 -10.898895 -4.5515113
60.629105 -10.793468 -4.9319453
21.919504 -10.213434 -4.6137056
60.557053 -10.327141 -4.8814402
21.772753 -9.779994 -4.5344729
60.466404 -9.7205877 -4.8177199
60.402298 -9.27637 -4.7725091
60.341911 -8.8421173 -4.7297764
60.266098 -8.2754154 -4.6759214
51.800789 -7.7112246 -4.8802409
60.195694 -7.7224197 -4.6256585
52.16906 -7.2380924 -4.904952
55.296364 -7.09974 -4.7061119
55.701714 -7.0536814 -4.7875662
60.130436 -7.181983 -4.5788059
118.72161 -7.3162451 -4.6447687
51.210506 -6.7365975 -4.5998688
52.434982 -6.8967657 -4.9261584
52.649956 -6.621047 -4.9455519
57.922592 -6.8647046 -4.9626589
58.90485 -6.8610878 -4.8054018
60.070301 -6.694984 -4.5618372
118.85603 -6.7246418 -4.6229062
126.47405 -6.6819606 -4.9897013
52.85519 -6.3375354 -4.963367
60.027763 -6.2630057 -4.5044513
118.96068 -6.3414774 -4.6150684
119.03091 -6.0521455 -4.6085825
126.47684 -6.2625771 -4.975389
62.323582 -5.8884025 -4.6724534
119.10043 -5.7642179 -4.6033478
126.50945 -5.8558826 -4.9683046
29.947906 -5.3163052 -4.9824834
102.69341 -5.34339 -4.9817314
119.19224 -5.3819351 -4.5980196
20.911747 -4.7455354 -4.6884985
22.005293 -4.7618704 -4.9227037
28.287338 -4.6493025 -4.8829527
29.94573 -4.734724 -4.9462934
102.62441 -4.8380613 -4.9434633
28.176113 -4.1957636 -4.8523417
29.946156 -4.1593451 -4.9128065
62.43005 -4.298367 -4.561543
62.651913 -4.1001177 -4.6031523
102.56358 -4.3428931 -4.9093504
29.94648 -3.7040038 -4.8885794
62.877373 -3.8984847 -4.6463423
63.107544 -3.692414 -4.6915836
102.49837 -3.736315 -4.8722
102.52291 -3.9772727 -4.8862782
-22.585463 -3.0961411 -4.9843755
29.946789 -3.2524467 -4.8664956
46.452038 -3.2395008 -4.975687
63.34169 -3.4826136 -4.7385354
63.581089 -3.2678812 -4.7877107
102.45554 -3.260711 -4.847218
-22.352045 -2.7668858 -4.9245296
29.947083 -2.8042839 -4.8465109
46.621792 -2.7549107 -4.9187541
102.41118 -2.6745996 -4.8206267
-22.16518 -2.2924035 -4.8722219
15.58708 -2.0991554 -4.7554231
28.126217 -2.0435579 -4.8034906
28.766987 -2.3807199 -4.916759
29.954386 -2.2474306 -4.8230362
46.750664 -2.1740978 -4.868638
102.38405 -2.2124805 -4.8035731
-22.040792 -1.761726 -4.8617244
15.587753 -1.7684237 -4.7437916
29.958248 -1.6948984 -4.8032451
46.808823 -1.7234005 -4.840837
102.3639 -1.7551727 -4.7900453
-22.002001 -1.4617071 -4.9026618
-21.965429 -1.1529179 -4.8635945
15.588848 -1.219522 -4.7268872
29.958549 -1.2557118 -4.790328
46.81588 -1.2828407 -4.8261361
102.35063 -1.3018591 -4.7799807
-21.919512 -0.70905477 -4.8494511
15.589916 -0.67280644 -4.7128434
29.958839 -0.81819552 -4.7793741
40.81929 -0.50864428 -4.5417833
46.806957 -0.73665285 -4.814455
102.34397 -0.73968297 -4.7723799
-21.878962 -0.26766774 -4.8384366
15.590742 -0.23671409 -4.7038765
29.959181 -0.27314183 -4.7685108
33.58617 -0.27692878 -4.9614372
40.826447 -0.26050553 -4.5402179
46.779865 -0.19327378 -4.809504
102.34711 -0.18069664 -4.7696943
-21.842611 0.21140265 -4.8226357
15.589425 0.1986725 -4.6972804
29.959511 0.27064845 -4.7604504
33.578266 0.24942072 -4.9532943
46.765656 0.24149881 -4.8061752
102.35744 0.26496068 -4.7714605
125.12979 0.33266428 -4.5700274
-21.827942 0.7546221 -4.8366308
2.08706 0.86466813 -4.7360282
15.588197 0.7425642 -4.6917357
29.954842 0.70514691 -4.7572775
33.587803 0.77583259 -4.9542217
46.742088 0.67613745 -4.8067627
102.3745 0.71017635 -4.7765832
125.20815 0.69318867 -4.59168
-21.827219 1.2702109 -4.8348403
2.4471438 1.285086 -4.7992611
15.589035 1.2866428 -4.6885414
29.950544 1.2483789 -4.7557607
33.614868 1.3048254 -4.9642415
46.727657 1.2201017 -4.8070583
102.40566 1.2672879 -4.7878928
125.28647 1.0557524 -4.6149764
-21.835405 1.7513447 -4.8361692
2.4273019 1.7447678 -4.763073
15.589687 1.7224874 -4.68822
29.951229 1.7921631 -4.7559652
33.6506 1.7493471 -4.979414
46.732998 1.7643926 -4.8059063
102.44676 1.8262473 -4.8041468
108.07103 1.8628384 -4.6324363
-21.838688 2.0706768 -4.8777714
2.3789785 2.2023611 -4.7217541
15.590476 2.2686968 -4.6906095
29.951763 2.2280676 -4.7583575
33.678074 2.0183768 -4.9916382
46.737358 2.200284 -4.8071952
1.9363064 2.6601505 -4.5797787
15.59124 2.8168383 -4.6958113
29.952417 2.7746696 -4.7641492
46.736877 2.7467778 -4.8128805
15.599144 3.2564411 -4.7007055
29.953049 3.3235888 -4.7727685
46.736481 3.1853378 -4.8193631
15.606539 3.6980782 -4.7076669
29.952068 3.7652779 -4.7822514
15.606406 4.2550621 -4.7212229
29.951099 4.2094326 -4.7937212
68.170334 4.324007 -4.9086041
15.606253 4.8165083 -4.7377243
29.951723 4.7685103 -4.8105893
68.138016 4.7692471 -4.9208117
15.606105 5.2697468 -4.7533226
29.952333 5.332387 -4.8304434
68.188583 5.2336826 -4.9532986
118.25437 5.2251687 -4.877255
123.53149 5.1474032 -4.6064162
15.605941 5.7269611 -4.771019
29.95281 5.7878628 -4.8487606
68.243607 5.705142 -4.9890304
118.33234 5.8192282 -4.9237638
-17.762156 6.2989645 -4.8667746
-16.601044 6.325438 -4.6802874
-15.647122 6.3786678 -4.5285578
15.600664 6.1899056 -4.7919469
29.953163 6.1320696 -4.8638296
118.43975 6.3111887 -4.9733214
15.596001 6.6577048 -4.8149428
15.596787 7.2484832 -4.8455482
15.597557 7.8478189 -4.8795338
15.598161 8.3347683 -4.9095135
8.9462614 8.9780674 -4.9591641
15.598757 8.8287649 -4.941967
49.536373 8.8113155 -4.7141657
8.9274006 9.368433 -4.9464011
15.588741 9.3346729 -4.9793367
42.588486 9.3337402 -4.5355053
43.238503 9.3240089 -4.6679306
43.923431 9.313756 -4.8083849
44.405308 9.3065414 -4.9078231
48.486198 9.2456245 -4.5570326
49.18438 9.2351761 -4.6745505
49.519276 9.0810223 -4.7238946
8.90839 9.7610168 -4.9342008
8.8891811 10.156601 -4.9227076
8.8632879 10.688384 -4.9083128
32.952873 10.848352 -4.5469275
8.8370323 11.225851 -4.8950543
33.122612 11.318043 -4.6315832
41.681183 11.212046 -4.5436697
58.658035 11.182045 -4.5194135
2.8039606 11.925072 -4.6657629
7.3932853 11.638303 -4.597012
8.8103828 11.76952 -4.8829365
33.302151 11.807217 -4.7211871
41.851753 11.687035 -4.6292458
58.630501 11.727961 -4.5695491
105.71465 11.858097 -4.7201815
4.0129027 12.288366 -4.9660506
33.428852 12.147332 -4.7844591
33.56118 12.498743 -4.8505716
41.452797 12.196329 -4.5120001
41.972141 12.017134 -4.689683
42.097839 12.358055 -4.7528148
58.613213 12.280611 -4.6202469
105.147 12.21526 -4.6648178
105.66164 12.137975 -4.7338934
41.453781 12.755038 -4.560266
42.229164 12.710477 -4.8188024
58.577736 12.855429 -4.6775203
41.454803 13.326141 -4.6113229
42.366432 13.075059 -4.8878055
42.510063 13.452706 -4.9600377
58.578808 13.279826 -4.7164922
103.72141 13.181449 -4.5405006
41.455585 13.762739 -4.6514273
58.584213 13.709726 -4.7563558
103.76883 13.809135 -4.6030812
41.454948 14.209024 -4.6937461
53.773636 14.284841 -4.6654902
54.044247 14.32242 -4.6314096
58.588989 14.29558 -4.8125496
71.717171 14.492652 -4.613625
103.80624 14.290611 -4.6523857
41.454628 14.816259 -4.7527156
54.408096 14.816016 -4.6905804
55.292511 14.753709 -4.549613
58.5891 14.74601 -4.8574138
70.834137 14.649142 -4.7906957
71.172493 14.737584 -4.7565827
72.364258 14.964204 -4.6308389
103.84563 14.783518 -4.7041926
-21.830906 15.263477 -4.5373683
-11.740974 15.399833 -4.5283308
41.455505 15.280814 -4.7987752
54.697868 15.301748 -4.7635317
56.650833 15.428922 -4.5448451
58.589222 15.206058 -4.9043503
71.461479 15.205956 -4.8222404
71.559143 15.366161 -4.8457899
72.036148 15.211298 -4.7381349
103.88663 15.286119 -4.7580791
-21.83934 15.763968 -4.587862
-11.740677 15.728495 -4.5589585
41.456406 15.755844 -4.8470078
55.266827 15.659444 -4.7724957
55.780819 15.945366 -4.7772412
56.331921 15.550661 -4.6124048
58.589409 15.833059 -4.9698186
71.626152 15.581401 -4.8875766
72.195557 15.773582 -4.8528032
73.754509 15.764586 -4.6493564
103.92976 15.801548 -4.8146896
-21.83909 16.190531 -4.6307526
-11.740223 16.23101 -4.6067247
41.457329 16.239662 -4.8970418
46.744324 16.203579 -4.506969
72.360977 16.181622 -4.9309835
72.775787 16.304169 -4.9071784
73.160835 16.282166 -4.8529696
103.97467 16.327858 -4.8735819
117.76768 16.234261 -4.5643821
-21.838831 16.694799 -4.6823807
-11.739772 16.743504 -4.6563835
41.458282 16.735123 -4.9494362
46.739666 16.699081 -4.5543871
83.648521 16.838865 -4.9629483
104.00586 16.686344 -4.9144297
117.9642 16.855637 -4.6571717
129.17606 16.758469 -4.5598989
130.14963 16.915329 -4.6940174
130.65195 16.907846 -4.7535172
131.16957 16.900137 -4.8153143
131.70334 16.892189 -4.8795462
132.25415 16.883986 -4.9463348
-21.838509 17.233515 -4.7386284
-11.725899 17.258675 -4.7057257
29.960815 17.177172 -4.5413647
46.735218 17.204182 -4.6036363
81.190048 17.275646 -4.6683884
82.309364 17.308306 -4.8341556
83.574951 17.082256 -4.9889188
98.916977 17.292553 -4.5451431
104.05457 17.236202 -4.9781895
118.10204 17.28607 -4.7222962
129.40173 17.412027 -4.6641955
-21.838236 17.761984 -4.7948766
-11.726335 17.79587 -4.7600789
29.961226 17.694382 -4.5915499
46.735638 17.718456 -4.6542816
81.925453 17.859838 -4.8691325
82.054329 17.674994 -4.8569102
118.24532 17.729488 -4.79002
129.5602 17.86586 -4.7374687
-21.837967 18.227699 -4.8452559
-11.72663 18.161781 -4.7977586
29.961639 18.22525 -4.6442499
46.736061 18.243427 -4.7069321
81.599319 18.326412 -4.9020147
92.050552 18.44556 -4.7940726
129.72504 18.3342 -4.8137202
-21.826616 18.694601 -4.8951516
-11.727087 18.723001 -4.8565254
-9.1583099 18.682491 -4.549346
-8.8329468 18.844872 -4.5505104
29.962053 18.767641 -4.69906
46.736492 18.78252 -4.7622075
80.343269 18.614304 -4.7856135
80.781471 18.680756 -4.8537073
81.31559 18.678514 -4.9237194
91.951523 18.675919 -4.8269567
129.89665 18.817987 -4.8931327
-21.793711 19.230711 -4.9508452
-11.727566 19.297192 -4.9176526
-8.6336203 19.16737 -4.5965118
-8.2217169 19.310431 -4.5889802
-7.8209019 19.406935 -4.5749736
29.976648 19.125135 -4.7340384
46.736931 19.333557 -4.8196778
77.899879 19.451118 -4.6551151
78.141151 19.241436 -4.6411147
79.65416 19.327812 -4.82864
86.201927 19.292965 -4.505641
89.984818 19.490719 -4.7864547
90.633347 19.151287 -4.7806263
91.296104 19.434237 -4.9040012
91.738174 19.327675 -4.9296565
92.073235 19.24637 -4.9501905
92.753891 19.079679 -4.9949961
130.07544 19.318155 -4.9758983
-21.76943 19.626543 -4.9925971
-11.727892 19.689032 -4.9600368
-8.38445 19.546238 -4.6502738
-7.8572273 19.727526 -4.6429324
-6.3072591 19.843597 -4.5526567
-5.9859533 19.718458 -4.5056171
29.976315 19.692638 -4.7934589
46.737225 19.709265 -4.8595109
58.987885 19.670277 -4.6049304
59.126907 19.86236 -4.6286936
59.911709 19.664883 -4.5205512
77.29361 19.629734 -4.6277881
77.696999 19.510902 -4.6454678
79.432831 19.803017 -4.8896561
90.352448 19.726076 -4.8686409
-22.170378 20.060612 -4.5595188
-7.6931849 20.255886 -4.7375236
-7.2637005 20.347435 -4.7240052
-6.7819853 20.274885 -4.6744399
29.975965 20.2736 -4.8552799
46.734737 20.28862 -4.9223127
59.267303 20.0567 -4.653223
59.638985 20.26623 -4.6612191
79.123268 20.144787 -4.91786
29.975723 20.670273 -4.8981667
41.918251 20.505892 -4.5964022
46.735214 20.879288 -4.9869714
53.871727 20.875654 -4.6003265
54.022026 20.644264 -4.5899658
59.872566 20.791945 -4.7440081
60.08345 20.847765 -4.737864
61.866291 20.945248 -4.6288757
62.11681 20.851545 -4.5940948
